ply
format ascii 1.0
comment Created in RealityCapture
element vertex 698
property float x
property float y
property float z
property uchar red
property uchar green
property uchar blue
end_header
7.223270412030079 11.6146784348316 0.424218659342559 143 119 92
11.57236631712363 14.00665725219894 0.2158928063952295 245 199 137
10.91396427684565 1.013967702218572 0.3090908940158552 233 179 113
-9.072237264267489 -1.843026175703555 1.107717383010747 186 148 110
-14.28514817210031 7.969284711323104 1.244686942827406 246 224 181
-9.244964699481081 14.82148806134881 1.009281878291915 221 193 158
7.282015481882888 7.385220489690504 0.4287324973365437 168 129 89
-10.09581113336057 15.9922141417558 1.005361142643262 248 220 176
16.27232826424662 12.17700942916766 6.387873757170562e-002 229 182 130
7.587939453969063 8.764491145412411 0.4127530543544549 190 153 114
-13.17541743314501 -0.980795152473342 1.258775674382121 244 215 165
-15.77339126723017 -4.035914591083411 1.414660421404965 232 197 151
15.641173693713 9.314036301377699 8.372487007496596e-002 243 200 146
-15.06172915713914 13.63045857054902 1.249194896814832 236 207 163
9.951586470897713 1.797105998793224 0.3729816290763382 215 162 95
14.63799682654352 7.895414322196023 0.1387650237521557 243 192 130
13.3762833394948 9.257854305525143 0.1965793436179322 234 186 133
7.188793595610245 3.773181852942641 0.4072059469007354 134 103 71
-10.52170973125092 4.061117356644359 1.119195473740995 247 212 159
-13.89030614226757 -7.216758404926473 1.37503574119632 244 226 180
12.86671693947153 20.96430784118492 7.240979245972223e-002 244 190 122
-9.416523835326915 0.7039100955911113 1.090085277457017 227 183 134
11.15779055936258 -0.2094352532723093 0.3081569802278954 237 181 104
-7.775901000929498 3.67413561302909 0.987856499753045 151 124 98
-14.60289284387559 19.29494902328531 1.143287757865126 243 218 174
-6.859207578309054 4.829453668716718 0.939450343723546 146 125 106
-9.295655496463501 22.84525786890153 0.8779406093114097 234 198 137
16.14688889137919 8.023759983883579 8.573769080744498e-002 243 197 136
-7.568953036971316 -1.201728933409334 1.041391435975906 156 130 103
-8.587398371904778 -10.08613422758063 1.187417820468425 143 126 104
-12.73145550718229 -7.013331324861714 1.305354900198294 230 200 149
-6.408590213005096 4.618024777191103 0.9211514627576438 144 119 93
-10.2053162188529 13.63372377699801 1.044657738631893 245 216 175
-9.686623272325491 -2.617383529223619 1.143247398062787 234 188 132
-8.943757945369986 -5.918424492024406 1.147046347997815 185 154 118
15.65468499549694 0.8972977744202049 0.2873665433584144 143 166 180
8.885113694518047 7.383257021763556 0.3584611085106347 210 162 108
-15.90549962798704 -7.477338896508757 1.440376456123703 224 204 162
10.96437513180624 -9.774488430319531 0.4086693257875499 242 189 113
16.17788205813646 9.290222781533917 7.829136606762044e-002 231 187 136
11.99013759708594 -4.692812110063359 0.3190988199168142 247 193 112
-13.26239443450975 1.55356613583908 1.25226813234492 247 225 176
17.45785625216989 14.06350236833753 -1.255114725332546e-003 241 198 142
-15.71217626446381 -1.853505754603564 1.370411368097345 228 195 153
11.12075318832001 17.05928200439434 0.1937808630373421 243 196 137
-12.25489416429313 -2.645767843617905 1.274108458965412 225 181 129
14.87286577916733 7.04817501335635 0.1350641537048563 251 212 150
-10.7670478547038 11.46794458401077 1.073636880496014 239 220 184
17.88184025567421 14.15941861974322 -2.347250148543528e-002 246 207 154
17.65747361307994 11.01756307068159 7.789124175135526e-003 239 195 143
-10.43115770495402 1.174563981999702 1.121771752907204 248 218 165
4.672360188015277 -1.915571937511288 0.5655194748480193 79 62 43
13.40454960886657 14.58341362375387 0.1567990719429801 229 179 122
13.18669563868462 7.275133064072755 0.1928736779657215 243 195 135
-7.338882208576639 4.897607547369651 0.9615460668468518 143 122 103
15.77756519597316 4.69572876715512 0.1285263343029053 130 153 170
15.9120954980922 9.437658129874384 8.837681437284758e-002 237 193 145
4.263052094919614 -3.281701807955475 0.59389712951173 114 90 65
13.58269412863792 -3.771799446569496 0.2362137733197761 240 184 112
-14.72242423438616 -2.932756786686014 1.345068855467343 236 206 156
16.27841693914217 9.292533790802226 8.266732509373581e-002 230 185 135
14.94832954763573 17.346931294006 6.591809179039204e-002 247 201 145
12.14799147091596 -3.009461586349662 0.3015787032294115 237 187 119
10.37760010191425 -10.19248033788719 0.4572611254017461 235 179 98
-15.56737157618975 -2.111047516628751 1.373277089353151 223 191 147
-12.05673582532526 -2.484888721805915 1.248696626702969 224 184 135
17.59154851275784 10.95302820011687 1.155585725754885e-002 234 189 138
-9.719251871734564 8.484128351968577 1.062211414760484 243 202 157
14.42493086899846 20.05887771712446 2.137761139917185e-002 243 191 130
6.462421177116459 -10.53738091911942 0.5953344529785526 123 101 72
-5.22223153991799 5.564131698038578 0.8869989882441536 151 132 112
-9.687526369236878 5.242538771465081 1.071478257288091 250 216 158
-9.098273240506838 7.726294800945912 1.058766868928681 209 172 135
-14.54734203382872 19.58634184369163 1.110783546120938 243 214 169
-5.929801627361702 4.310381058807411 0.909364111137769 135 113 92
10.73048054565274 -6.278101759513236 0.3911476577687398 235 178 102
-8.766468569432424 8.79989367267024 1.027601687858819 196 167 136
11.31125550194806 6.895629624473099 0.2509684685214345 240 188 123
15.24101050839792 -0.3621129690411084 0.1353464423436635 245 193 108
13.14278689784623 18.35472417111608 0.1114445918559511 243 193 134
-9.62407334613547 6.007603589332806 1.064842666935674 242 211 168
-2.394431485033693 9.47499478403312 0.8248578028998637 108 91 76
18.14923391029748 9.148871389579227 8.624018931257971e-003 241 198 143
15.52362184908329 9.896678098098668 0.1104402662278846 238 193 143
-15.71067831356009 -6.184407794617266 1.411397896058507 222 197 153
17.39671331548524 11.2244594936443 2.963260951480939e-002 237 191 140
-15.75792658365869 0.8085353210350321 1.357513160074006 237 208 161
-3.94553249288527 -6.543633072938013 0.9619779044317123 124 102 78
-8.426238058952448 -10.37461395692418 1.152448984041432 154 139 117
13.99476655672457 1.616142809525356 0.1882866285599434 222 168 97
-11.13725621845633 22.67810967062852 0.9533286113283381 244 207 147
2.198293259039571 8.524104184860104 0.6045542137312778 116 94 72
15.37460586901892 5.602528956483657 0.136290496672212 243 194 132
-6.819044476101213 2.044982987888297 0.970580182098105 143 118 97
-9.690770349301333 -9.593613209543001 1.22273116817322 228 192 140
-14.7276724087719 -6.784360554665252 1.37654371574623 242 218 167
-11.99558054270238 -3.396799821796967 1.240081293610152 227 185 134
14.02490641974389 -6.012127536102608 0.2621570175589898 230 167 97
-8.612601908381434 -7.023663504888794 1.142238297805777 145 124 98
-5.88713808351006 4.515366457050887 0.9006880281730298 140 119 98
11.95641144973566 22.02538455855582 0.4991470306823559 54 70 89
-12.51264917058908 -8.106309384142499 1.295347737724079 225 192 144
5.017971361759431 6.274902626842123 0.5133395129960787 104 82 62
-9.682714568248111 7.168748115595602 1.063433822299075 234 205 166
14.11945390286125 0.2717815912882529 0.2042919293291259 239 180 103
14.16349421357551 1.417952665325276 0.1443658977955534 241 182 98
-13.53185409542721 -3.129708216867309 1.283770878390289 251 223 166
14.20991787995713 -2.675073231771917 0.2267127239114954 232 177 101
-15.09246984468917 -1.069367280345108 1.329064493065859 229 198 153
15.45440533803927 5.246493898498146 9.879012828867176e-002 246 194 127
17.92908276940763 12.16264836861858 6.789394207558613e-003 240 195 141
-11.84017987838431 2.537818338441181 1.185600657211697 230 193 145
12.79127227040531 -6.660363940017212 0.3192477697099578 237 178 105
-9.649592563761946 0.5829463563415561 1.126618913285807 243 200 144
6.337765685685273 8.785188019470564 0.4675299950918214 129 105 83
11.30907574069945 5.417807319092595 0.2637385578405301 246 195 132
-12.4301822196661 10.36781477823463 1.152141316059313 194 172 143
6.257172555196783 -9.940936525643778 0.6069962588537632 119 97 69
-10.40787830335184 1.021666113043073 1.146507052559082 249 218 165
16.9358853353922 11.77412094531945 5.375811148270782e-002 233 188 138
-16.45145739688168 -6.942608212784283 1.444517551292503 236 222 184
-16.08131026946146 -4.594155203998954 1.41710513733565 240 213 165
11.03823371006134 -5.569209342505446 0.3533014411851425 235 174 101
9.287661040514383 1.161866679515147 7.334798290883118 229 181 118
17.40806771669338 13.03938851276804 1.154262369106798e-002 232 191 141
-14.31106580768552 10.94518249772409 1.237494748316455 249 237 204
-14.51126744007702 -3.020762885063979 1.331639621339867 245 214 160
-14.88488937631042 10.72720574455387 1.27162297102307 239 218 182
14.93175875409406 16.50206351499718 5.395739127957283e-002 239 191 135
-11.90635807521537 -9.239735338825307 1.295102944312605 222 193 143
2.825975683690005 -1.524144475475422 0.6400362946917183 36 30 25
-15.89227526827977 -4.965174755258479 1.416184842686442 234 210 166
12.45970552106316 6.58766053462581 0.2152925371783727 244 190 123
13.82987081712505 3.478374172078169e-002 0.1882629267968321 234 177 106
18.24022362925338 13.38474308456635 -6.356590249163963e-003 244 204 154
17.53931380989733 11.03312849578267 3.23765424201829e-002 236 189 136
18.18811517008054 12.14704041929587 2.557377036446384e-002 241 194 139
-12.39193925908637 3.579493814540877 1.194375114459104 234 199 149
5.355688751362525 1.352239622971034 0.5022073475555273 77 58 40
-10.90488515576502 16.1597529044347 1.044297857698987 243 220 180
14.10956892886706 18.59666386153918 5.756980344536766e-002 234 182 124
2.431825613580834 -8.807618042263716 0.7374730945311113 129 107 79
18.78101033226674 12.9570740336177 -3.132714077355386e-002 249 206 150
4.189511461781986 -8.8403189117392 0.6764442021966276 127 101 73
-11.45720122577883 -1.498841157233624 1.197809730517734 240 201 152
-15.44044354111699 10.88000696205568 1.283981107133814 231 211 179
15.48675596970458 5.328268565490548 9.920787574452267e-002 245 197 132
-12.42768753201187 -0.8363204916313975 1.235436510617688 231 192 139
4.97832644671383 3.768381815171891 0.49518618153015 88 71 53
18.00670597786713 12.1518361226065 9.074139867211339e-003 240 195 140
9.144534890950492 2.554161419780093 0.3523823026969231 207 162 108
8.98400359694423 -0.2050575375631278 0.3857510772089526 210 160 96
11.53676416725464 5.471158212473352 0.2557320303118293 247 196 130
12.10375812369307 7.739532178921259 0.2361000647779755 250 206 144
12.20917951386324 -2.262061757838606 0.294666169470329 238 182 107
-11.56395134198685 8.233387387078366 1.150827257136258 230 200 164
-14.86813473504201 6.523640996313314 1.278831087122521 234 213 177
-4.776062147090617 5.622741711516476 0.8685485683479035 125 108 92
16.32650667086361 13.96042911763402 3.499270353921469e-002 242 197 140
15.5594346542331 7.858610850214976 0.116729152538089 247 198 136
6.503009934314059 6.1961880378086 0.4579267644500215 128 105 80
7.475020214943441 -4.995907425057957 0.5113584089858045 184 140 86
5.758072374600222 22.73508927221833 3.421288987534052 14 24 34
13.05339897657539 -3.401970356221825 0.2745427965803612 236 184 113
7.948764491678739 -5.953889226418029 0.4906081589654252 212 163 107
11.33016638967899 9.435429366630093 0.2620001640670671 245 200 144
7.087596381359778 0.133676128194157 0.483138991005825 112 86 56
6.285358665235354 8.340251019607232 0.4289103809366876 131 107 82
-7.523119255502025 -0.1056920193806178 1.022016599688852 152 126 98
20.39041779185484 4.046852037984927 -8.218323960603039 57 83 106
-16.27568284828615 -0.7266243565809734 1.390914516351161 178 172 153
2.571581069619651 8.314041754415205 0.6047795353496298 118 96 76
-9.201588025433846 9.287761321287885 1.046645008861089 219 174 124
-9.719228531225921 -6.000401455660592 1.17413834208473 227 191 142
-11.80387657618531 2.621550967906662 1.176727642371137 225 191 142
16.6371138030001 18.51963176591388 0.7534031346470484 182 176 165
-14.97372904119221 -0.2095087229693531 1.321593397827915 237 197 139
10.58448923272304 -1.222915454592747 0.3343230619923928 218 166 97
17.87722857194326 12.2641546744996 4.293632791326107e-003 234 189 136
7.252443058090535 10.12526664355836 0.4199280257285892 138 114 87
12.48897302818216 -2.776421388782173 0.2838863452595002 232 186 128
-13.02974911545051 2.254123765889728 1.222910347406648 250 227 176
14.35581245662211 -4.066295754263964 0.2217979287994781 248 200 120
-14.61697645888069 19.5236148339989 1.14303789502397 240 208 162
15.19636678493246 -1.322505840065761 0.1564604636200597 244 192 112
15.25416350165148 -3.573447077473696e-002 0.1499375291026488 243 188 102
18.6357882783623 13.78223250816982 -2.816782586351235e-002 249 209 155
17.71309550711536 9.395706838278167 2.813085165018353e-002 234 190 138
14.11241386109032 3.956258973111213 0.1619176427563698 238 180 114
-11.22810146248543 -0.8068722302465492 1.174034662637661 249 218 164
-7.807380856361505 -2.017302727463343 1.070564667353124 142 116 89
-11.22839236388918 -8.431964169236718 1.25283277001732 249 223 171
16.87629317482022 12.84757394084208 3.290189227540147e-002 234 189 133
-10.05936222713228 -1.320294195103924 1.161287465801992 250 211 151
-11.56420881698747 7.94684331235572 1.148260320943896 232 199 159
7.916802602915574 -1.704455322887938 0.4434736169510387 200 150 93
-14.36573902405073 13.35584990551836 1.220762191564901 245 230 195
-12.05402857357934 0.1092802846794178 1.212863100591018 227 187 135
-11.93968775371014 7.559883743423519 1.170861782015854 223 193 149
6.946746210987488 0.3289485637088893 0.4727870317228794 91 67 41
15.9330255297581 3.231924726357172 1.808472186089289 76 110 141
18.27598319381272 11.25194380058459 -6.578595576850338e-003 247 206 150
-12.83752999105518 -3.104622600806362 1.278029177216118 240 198 144
15.277013504049 4.177846451599015 0.110314013231411 245 194 127
10.92962601276219 13.53259745412925 0.2391204794550029 244 197 139
-3.640879020226784 9.275309324627401 0.8532659937154361 133 112 91
16.19724163864977 13.96314632898541 4.353663706713701e-002 243 198 141
10.85199426257573 7.750233879755587 0.2777259197971259 235 177 111
13.59377652331029 -4.164553177141615 0.2575536474819755 243 193 116
12.00372507562311 -1.791047622738949 0.2968729232767525 242 189 116
-0.2851271593025997 -8.443603799413719 0.8326496690224152 96 77 56
-10.18839201586704 -3.517012994414844 1.19165078889681 250 211 149
-8.977833638365242 1.633798050345875 1.069141505790822 204 165 124
-13.27059348720345 -4.813952959566852 1.310909343985345 241 209 159
-10.87453143574492 -0.2668933802972476 1.162337818639412 249 216 156
-11.89131323416644 -2.929635423261782 1.229299637616619 232 192 139
-6.659943572654258 -0.7034113145426126 1.001385440971293 145 119 95
-11.06813507585746 -4.340820563307973 1.193291476419365 243 207 153
12.8761572912127 -0.7800512230063559 0.2329235997158131 244 189 116
15.22027813687053 3.665482137176397 0.1191243213028601 244 189 112
17.77279335733133 12.92886590019861 -6.177405312899786e-003 236 191 137
10.79141768221503 4.020173464160257 0.2928769761101032 236 180 115
-8.949687425338695 1.091987739710448 1.078558676153203 200 162 125
12.03208655311847 9.39966286333582 0.2223992739081191 244 192 130
13.2164511303086 8.10983711136293 0.1923892120763034 240 190 128
10.77739244415257 5.59966122710606 0.2823004785748913 238 187 126
11.66418254119971 -6.156941534187276 0.3387960363023906 235 169 93
10.38920701721405 -5.169121173380857 0.3909255432050471 228 168 92
-9.688662231251346 0.9201856086522826 1.091586164066966 238 196 143
-10.54413017203586 -3.300975867922175 1.177715613987068 250 224 165
12.36141152804747 3.989827161178473e-002 0.2507059275836137 245 193 119
12.56608128987281 -4.165614839061332 0.2905700185308737 244 193 114
-12.88679170168597 -10.0067209154584 1.352913816742371 235 208 155
-11.69182266642211 0.8545496828663903 1.200351115489462 236 201 148
11.73139892036383 -7.051575260642644 0.3594115213929472 247 195 114
-13.09719024471247 -10.42170392328497 1.35000724354254 241 219 169
9.254283271487825 -2.743010731509432 0.4080647827680851 217 169 109
-8.931215114242127 10.24440302681343 1.036005284561536 200 169 133
-15.1180895799714 -3.7763108757411 1.366329886398509 230 194 146
-9.990933552845457 -5.56967466799219 1.182737946691308 247 209 154
-15.31950175827474 -0.8546878027045723 1.348291062681943 219 189 146
14.21806115971673 13.15729673042995 0.1420355929578467 236 187 128
8.306857834396144 -0.2547904669658724 0.4418517454492212 209 159 97
-7.563474608249659 1.622967749114037 1.011756894426223 149 124 100
15.64665335370947 4.83316705420312 9.690412347957256e-002 202 178 145
-10.71527414653877 -6.090979607636219 1.213551472755699 249 223 170
-15.10231132829236 -4.8687983821109 1.364170278238494 218 189 147
-9.652526806352601 -4.475618373234218 1.143258701504672 229 181 126
18.2347222985174 11.35605173917649 1.196369904348404e-002 244 196 140
-8.517371260420646 1.31798311126452 1.067275053988291 157 135 111
11.10961148374866 -6.588526778235208 0.3805604119524514 244 191 114
-9.258900702144532 -4.243311633573657e-002 1.067740284546947 215 172 126
1.405932701176865 -6.362377198785221 0.7457371924533076 104 81 56
12.74459257378177 -0.7204580206490068 0.2395857529718512 242 181 108
-15.41296429276897 -9.803498458737703 1.434276046023738 240 222 177
-11.61139474154727 -3.992688638085655 1.237226609140752 242 203 146
11.04078049284895 7.982386042331097 0.2676008700732402 244 191 127
9.124318126971088 5.336630528821372 0.3682894437721508 181 138 88
0.6587671945428369 -7.055832937321674 0.7883630276264539 95 72 49
-12.58858416013987 19.49257724209783 1.070339304567866 242 215 170
-9.158499548403414 -2.056957518173782 1.124542976572331 207 165 122
-10.75654050042005 2.735777228640631 1.143104607936284 247 221 172
-10.2299336146315 3.514888966056719 1.108240540482858 251 222 166
15.15169800988097 9.492168746170165 0.1123310705981091 245 203 152
-10.56609221084289 4.18894782232257 1.100179436107877 246 218 164
16.09613598575982 9.973718492339863 7.318685405486905e-002 235 189 136
-13.18030240311506 -1.501704353390029 1.270680836985139 245 211 165
17.45421784553328 12.52095057957017 3.183419397967435e-002 237 202 156
16.52823011574997 10.98951306785867 5.971886478137833e-002 222 174 121
13.92595751692372 9.262004335468434 0.1726771535985914 237 190 136
-14.4914150977471 14.23475505038465 1.194715944735574 244 222 181
-12.05568571983266 4.482008668377481 1.182724919068647 239 214 174
-14.39316553123731 16.3108544160878 1.177360565358507 250 236 197
-9.851330230998135 -8.501419260515055 1.218045769584188 241 217 168
-8.643910825244802 0.9581651925971697 1.047386790963749 170 143 118
-8.532162957607605 2.822077067858959 1.071357399313243 170 142 115
-11.55507625227597 1.511545915685289 1.185482731687119 236 211 174
-11.06491834958617 7.42751257361978 1.135622091366637 207 185 146
2.817933703063226 -1.822275265771981 0.6179180779384723 36 30 24
13.79438758503348 -3.958927663651842 0.2441638618497966 244 193 119
12.64078493156764 3.107037787126128 0.2107153443619073 245 189 114
7.083330105276283 0.204395038347678 0.4741998434032516 110 84 54
12.12981639113906 1.590589547217382 0.2448724865757853 241 188 117
-17.37757001181367 -2.138597230562735 1.441389502232054 100 95 91
-8.719423428946603 6.90441277547242 1.039165608445013 182 154 128
17.98596784571187 8.918899605697939 1.393186395108378e-002 245 206 147
-10.43077095183977 -9.312190786241468 1.223726768082611 246 218 162
7.212186307633885 8.080693331484353 0.4190501910506215 145 119 89
12.69973473940927 -1.797368127518275 0.2668631778735507 237 184 110
-8.720010756954164 1.97773258152502 1.056867725122665 181 150 119
11.29034795975373 6.379839915990762 0.2606873402191601 249 208 144
6.665107752400614 -1.21549241035947 0.5013875668719816 126 97 67
18.46269121240772 10.85286540992444 -1.134225100809017e-003 241 196 143
-11.40938928032503 -9.076372223451012 1.272281138852422 249 222 167
-9.569854347417598 -6.028731184158813 1.169134374362463 224 182 130
-14.90384029300873 2.553793843292448 1.309010725461986 234 204 155
15.88378445919116 -0.3880844073581563 0.1426940874930114 240 184 93
-5.446141950836306 1.029391987990268 0.9574017690929941 147 122 99
13.27229158973149 -1.039034286916657 0.2260970810868025 236 182 110
-14.55792560822488 21.56009219812655 1.090947103075202 241 210 160
12.87184459042617 -1.938620273278743 0.2583106389566703 235 177 105
-11.15354538691337 2.865369832874849 1.144299523724128 249 216 162
15.38974211590271 -0.2723166924128907 0.1458618765607842 248 197 114
5.597870463522078 2.6803709924099 0.4956854500058127 77 58 36
12.94013133748719 -0.5986348059401196 0.2378335313299161 233 177 105
-11.34441801430296 7.230427757449203 1.13732264810965 237 211 170
15.60582695729345 6.492524497573352 0.1041130569590054 221 177 126
-15.49561809538231 0.1461434073158774 1.326998731489213 230 198 151
11.114504390861 7.530688061830324 0.2775088219626999 233 187 124
13.76193969135555 -1.961549094334375 0.2170365018845477 233 178 106
-10.42241577911938 4.781432409897817 1.101362438802744 250 228 177
9.124116035589358 0.3037552551288071 0.3779159605328439 213 160 99
-16.31407088281955 -5.68768438694114 1.423493199149858 243 226 180
13.85256907371337 -7.533605276848917 0.2820035105893459 236 188 125
13.53991620970361 9.132984819525145 0.1786295883748003 239 192 136
-9.06408874809309 5.569715302033326 1.061436618051143 219 168 111
11.38921300894988 7.728180195668772 0.2467308514084219 247 198 134
-9.206011842118853 1.636906891228631 1.08647030112374 220 177 130
15.18082441116242 -2.236390764793784 0.170304810668077 245 190 107
-10.80432878231978 -2.735389228083051 1.176809564752318 248 210 155
-11.89891278488075 -9.688627130663461 1.292621917303172 240 211 160
13.90531380040888 2.599035518796549 0.1698745182489555 234 174 100
-15.81894274990169 0.882934036451229 1.346802339452567 242 213 167
-16.11415725136951 -3.765848972554236 1.411932209412526 245 208 154
-4.5650224281818 7.602745607675314 0.8980223130623395 120 104 90
13.45677340127009 4.842208263651753 0.1799583893937844 229 172 106
14.19583578089444 0.5029703021397287 0.1865519042945132 236 182 118
13.39626377987106 -0.8629341014224277 0.2173918680482666 234 178 105
13.80547795233339 -7.781399569153753 0.2978559398309512 238 187 115
-15.25004442387089 -2.399435233478913 1.355376860278531 229 198 151
11.04754525023578 2.161454602798403 0.3040967453384567 238 184 114
-10.0716915718458 -0.9251027798597939 1.151972592877108 249 212 152
-10.30149389586744 2.063435709526409 1.108341643920994 247 213 155
10.39209290801843 0.137214745679424 0.3133602530921731 226 174 108
7.324134116547946 5.541968338399091 0.4449187865633939 132 105 76
-13.49738710886229 -8.383380184739121 1.348289950572148 251 237 187
17.25744448206464 9.51384989328856 4.639103827591981e-002 233 191 143
-10.14062994963307 6.966923993210075 1.08592822485187 212 185 146
-8.609790677559657 6.133708181573457 1.030306816304797 185 163 137
-14.88405049524837 5.669748241642157 1.28442231181604 234 217 185
12.00809658137079 -1.487023226588281 0.2506390589322822 240 179 104
-10.40809479493999 2.062056926188192 1.111613946895661 246 217 167
7.866071243816762 2.583795572255554 0.4100485856102769 189 143 90
-10.58541878852569 1.933315921259118 1.134925179674587 248 217 162
13.63274767975437 -3.063612768880368 0.2472056993014807 233 176 105
13.17622280989869 -8.078367876935824 0.3194952901369539 235 181 106
-9.309117226395397 3.47034339791928 1.070882653806157 228 183 134
13.77785492498278 -1.803499720393476 0.226588366779294 228 173 100
-9.233513626404873 10.47001294784283 1.053617085393599 223 192 153
-14.72401887615896 2.716407235922994 1.277933612964338 220 185 131
-11.6725080246923 3.342494325233886 1.176791050560813 231 193 140
-9.64258471440988 8.666383417179784 1.072821748749641 242 205 161
-12.44690623022396 -9.52516807208575 1.321224516326761 223 193 142
11.72036774537894 -5.803774373480423 0.3464099835403847 233 170 98
15.22132540402598 6.047825943206746 0.1111065033299717 234 189 127
-4.779837814688018 -4.824881699441875 0.9832509509030383 122 95 68
17.73416329450037 9.974929856583088 2.238720218274196e-002 240 202 153
11.06867934907437 6.202627356215272 0.280119772997432 245 203 142
7.736026544053039 2.619874420191128 0.4124571454399222 194 145 86
15.21044510323548 -1.889873283211998 0.1677435508375297 242 181 97
15.62943488676099 7.649214344817608 9.484821866163753e-002 244 193 130
13.76703333115198 -4.717991321500506 0.2469382638052448 239 184 106
-12.43743910299969 -7.406928074635077 1.29448039525364 223 192 143
11.98000711413812 -3.491582837392482 0.3097257406821006 240 184 111
-15.64633852756095 -6.502712698726071 1.416332116186098 224 198 155
-13.08146627501735 -9.163090868593828 1.335004932641081 235 210 159
10.92089101506715 0.4925379104063779 0.3080543717148612 238 183 112
14.57311527492104 -5.309134692681234 0.2098329315057057 243 187 105
-8.859692525276147 1.982062053383655 1.064863532748233 194 156 118
-9.900999644425939 9.302268604752431 1.070054221540919 247 217 172
-12.0599370350328 3.117498777851508 1.183044264315185 231 192 144
-8.688074345192103 0.8979764851481913 1.064772027650058 179 149 120
-11.45155331622095 -8.990205725453745 1.280003512170865 248 221 167
14.53201862539798 -3.940807992929799 0.2108032179428326 249 203 123
-15.59031647874641 -2.485271743565024 1.361932919719653 230 200 153
-13.08381148434371 1.458770009466503 1.234258596154431 248 224 175
-14.63513455417738 2.168040232932946 1.304693554090353 247 218 169
-11.70207353427378 4.467638388191367 1.174830343178313 240 219 178
13.23167340574538 -0.6139462891285683 0.2123334908093945 230 174 103
-12.98888875887567 7.798455519311416 1.199081517687794 247 225 185
15.51426764859063 -1.231797182496442 0.14582685853859 246 192 106
15.91624685922317 3.484777389911768 1.707160138765843 74 108 139
-10.64485562707647 8.939959648504225 1.107281591439717 250 237 203
-13.07579398666595 0.7850114064722598 1.243912184957517 248 224 172
13.22445777314634 -5.550778358316904 0.2906588686333247 226 160 88
13.20343755489937 -3.722549102857596 0.2675725447257087 238 187 112
12.35484548593932 0.6340778251121535 0.2367797642185197 239 181 110
-15.99693769527162 -5.172079397793577 1.402262418800936 238 217 172
-12.6281920015818 1.636554839681829 1.228060231626773 234 198 149
13.1662572865691 8.002566085109743 0.1862804814712887 237 183 121
12.71815522196946 -1.63291933913852 0.2607312816427295 233 178 105
-13.31448345515263 -5.88568601856774 1.297486919124718 239 210 157
12.73700199995885 4.734669782942689 0.2028551033123958 247 197 132
11.68148667849206 -9.074254851546197 0.3892167694212582 248 206 131
9.451258391641678 -9.699545959138856 0.4865816624603014 214 168 105
17.5455374784038 6.896578875473107 3.511794251101419e-002 239 194 130
-9.294896701951464 -2.38908669642497 1.119602177517341 209 168 121
-15.72467929835064 -2.555228021973666 1.379446781561027 237 207 159
17.2707090014033 8.764048806213577 3.552015492614793e-002 246 203 144
13.98869250711613 -4.386129404160678 0.2299149701133007 242 189 113
6.228348199295298 -0.1907472234979498 0.4827513001798692 89 67 44
-10.59902411324535 -3.637169943747226 1.182427891444552 246 213 153
13.56919832505082 -1.830948208034791 0.2283040747734526 226 167 95
12.64317794630014 -6.852914251951652 0.318707027305316 235 173 94
3.663809764048567 7.88851432714062 0.5532470022225568 125 103 82
-12.06560120297843 -8.896459486099888 1.300499873200049 228 196 146
14.94369010047176 2.033096617506554 0.1332901847144693 247 194 114
7.654352789547615 -1.391160308041626 0.4543393196069004 198 151 96
-4.159827071899026 6.58335612929202 0.8594633152494484 114 91 67
-13.1237796020254 -2.491833005328181 1.2642802604572 236 199 146
-8.833484160603462 -3.303234711632117 1.116139660557364 187 152 113
-12.21936703616653 -3.143926133511964 -0.527468477228193 243 207 155
1.363626988530819 8.594688592030892 0.6460033322238007 105 84 64
11.24119100611313 4.769874496565959 0.25558943935659 244 197 136
-9.526930730471364 6.622586989267707 1.076758321794412 244 218 178
-9.731570754985984 -2.126910593198025 1.146706177985814 238 190 132
10.94872090192216 3.98296064113244 0.2894637778272065 238 180 113
-16.2037112670263 4.012255737516917 1.345918951551673 105 103 104
7.109368476160117 1.269598427881394 0.4409257441995532 134 105 72
-9.529608212146501 4.09282714961957 1.089582224176867 231 190 144
15.18387901453815 6.201398055722327 0.1224496338147842 235 188 125
11.12595829951445 4.992262291046374 0.267551693876504 244 200 140
8.251127092858779 3.462992600934307 0.3903046714603203 212 161 102
-14.70593586765906 14.18751272634585 1.211455926766841 237 214 178
10.41167341523076 3.659347452772991 0.3187623632188287 234 175 102
10.01219714058409 -8.305527955486822 0.4385722004330385 220 164 93
12.60660223893156 -1.801758827559026 0.2614975540668246 240 186 112
13.77333373895119 6.47424868217265 0.1519313317168791 233 180 118
-9.711387702669803 2.358290731751775 1.095655734165132 244 202 147
9.711357046262716 -2.627217280074028 0.3968417240046697 210 159 99
15.46530882901259 10.00636931737816 0.1096035929493328 236 190 138
-10.69613831517732 -7.051057906479125 1.224961663850978 250 232 178
-10.88631442938431 5.935103611120309 1.13259385460485 249 233 192
13.55785469467263 -0.2357738997750617 0.2089514977038442 233 177 107
11.39585567792742 3.970417763425496 0.2644822223501477 249 195 124
10.65131115238371 5.356352124139162 0.2916755355004955 230 180 125
-11.47445015577639 11.00363740442761 1.132543889774153 242 218 176
13.30921263169285 -0.8208155050024888 0.2262614458021102 235 176 104
-9.459008788189491 3.196020767906766 1.084967404244446 238 194 143
10.78357849851679 -2.980099770117682 0.3421842483906932 231 181 112
11.83950347067942 -9.704044966147277 0.4043431105084275 246 197 116
8.024120973817496 -1.513413599093878 0.4385734638955808 205 156 96
-14.48513864210444 11.86059154624723 1.248789551824523 248 231 197
13.6272076798786 -3.632032793919552 0.2422704690065383 240 189 115
15.74123318689257 6.225418857721076 0.1546417747782863 145 150 148
14.09129418266945 -0.8402323149808097 0.1908610699830947 233 174 102
-15.13889496052857 -2.389108576178321 1.35598225185325 230 199 153
-11.5301313695067 -4.041624112455651 1.236058502036963 244 205 146
9.882307897267134 -9.607654044803475 0.4514625252720381 221 170 103
10.34968606874751 -1.699901297930393 0.363125227599359 213 164 104
-11.74113535931884 2.22518512867725 1.196023389876862 234 197 149
14.50221864860738 -4.113817267845026 0.2092957050786329 249 198 115
10.01246660683897 -7.19252421161088 0.4052653260639067 219 166 98
13.87636792247684 -7.075745489912753 0.2850821736691221 224 163 89
-14.1788109589439 1.822342612204262 1.27166448430486 249 231 184
-10.64020499772117 -3.57977934652518 1.199943597764997 250 213 151
-9.848487566557338 -2.133606337309596 1.15216058402749 238 194 136
14.25299580949404 5.09211316366148 0.1493915215843405 237 178 110
-15.91477879832877 -4.717300692507785 1.401762230685455 226 198 154
-9.442095504763698 10.63781430195745 1.045356811516496 236 205 165
-15.95349074942726 4.584955400174359 1.331545975877536 187 174 154
-9.529151485609802 -9.079920688827102 1.212588026717818 224 190 139
-13.84083207657885 5.254845576311166 1.234272512125874 250 239 201
-12.92793837426522 -8.691923833445001 1.32952574514177 237 207 157
-9.831304313070946 -8.568549074796506 1.212343361343619 246 218 167
-10.79814655513598 3.662963997521171 1.131383658581808 250 224 169
13.61231154356863 -3.582565761921206 0.2352340161970455 240 189 116
12.60170862807689 -0.7944328794912168 0.2498703531201694 245 192 118
-16.1600658627232 3.561235313720157 1.379779569920303 145 133 117
14.87146561304309 -2.360842758887319 0.176932339652691 248 194 107
-15.23131538010388 2.388331579735682 1.325314157217041 227 197 154
-16.26192897016304 2.697374850029016 1.37867827766738 123 122 123
15.11854525003106 1.88007584477037 0.1200697364744177 248 194 112
15.23713991113847 6.475920995566377 0.1170917163208715 236 187 126
-15.54194449861875 0.3297582612418842 1.338338856390449 233 199 147
-13.17540002358855 4.333907039451241 1.227444416900276 249 227 181
2.785551514164933 -2.11931879907587 0.6538025920056066 48 38 30
-10.85846661901674 -3.580707438843125 1.194777221528114 250 213 154
12.39652697260069 -10.6789937016487 0.3764857160000034 240 184 106
13.20789176737171 -2.063074196042601 0.2453254869942318 229 168 96
11.67193400237733 -10.51403165379132 0.4134842827400688 241 185 100
7.620865420577849 -10.17463167831526 0.5472104014568054 199 155 100
12.03638999615311 -7.556398595920292 0.3511387841663755 247 195 118
12.30328406033781 -0.5776911511958249 0.2542321154338269 246 195 121
-14.78700124531791 1.473486849254195 1.301632345233763 244 219 172
10.35173656745853 -11.06240843431773 0.455216555531803 230 179 113
-15.99329107160209 8.236937076501825 1.31752832366625 120 123 126
-12.96574808269824 5.858368530623626 1.206176210847138 249 223 172
-10.88527012899848 3.006984831470943 1.140618645763404 248 217 163
-16.22182226152112 0.5889833786637937 1.370135388223994 171 158 136
13.93871230589109 -1.030855508183121 0.1961745323773386 236 183 111
-11.56142987399429 9.156326454919235 1.138388705489707 240 214 176
12.99739841612673 2.480336678619446 0.210502870415198 236 180 110
13.95729077051201 9.488711993597175e-002 0.2027305903710641 230 175 103
-9.109689952026008 4.547159700955605 1.057909788096544 217 187 150
-14.51243390412793 -0.979166162625676 1.315293022659157 246 216 160
15.63621614868183 -1.161629869208941 0.1360153663896584 239 180 91
-13.6599342614508 8.679801948398934 1.225536323282894 250 231 170
-9.347256379581816 4.61476428767446 1.073715130104824 237 208 171
-15.30985258967548 -2.632306162389312 2.98064057306566 245 221 171
-9.686404480784029 -1.433409945351174 1.134788632312273 238 192 135
-15.60520393204073 5.668298006465238 1.321015182720308 236 221 190
-16.40199937604099 -0.515217818950247 1.393733461594094 144 142 135
11.99934768958763 -9.098800775500472 0.372902564517691 247 202 128
13.99578947922522 -6.874880315103111 0.2673694151070232 231 166 90
7.638996384001469 -5.323520839051294 0.4966179582019821 186 139 89
-5.228616134919412 2.929395627956985 0.8891151526740009 138 113 91
-16.2429395774658 3.316972494064101 1.230078140745015 148 142 133
11.81478829574347 -5.92530388673673 0.3507421771781914 233 170 96
-13.57792938537255 -3.321642342383943 1.29211550570809 249 218 161
15.49103785829397 3.725725049623858e-002 0.1340588181777327 242 184 101
-12.04978738894997 2.811303853930719e-002 1.192939130880258 228 188 136
11.08072380158551 -6.469681331904114 0.373007749762181 239 181 106
-10.04358994628451 6.869915014262285 1.08791369535268 247 227 186
15.51580768835506 -0.3925521474251148 0.1353368256022743 246 193 110
-10.08826270923661 -0.4750975758507031 1.175603029254998 250 201 125
11.39034329538186 -2.416440583519943 0.3358306357279671 242 187 114
-7.854868984055668 -0.6289417376920012 1.088243173625133 158 129 93
8.381268970835173 3.295637973988452 0.3810110624230895 218 166 105
-6.892390419674326 -6.708703573870159 13.88822374592802 129 133 132
-7.529618626113727 -1.990137892353505 1.059443489666041 142 116 86
-0.3523739183034071 -11.86212500769346 -0.6126097507146302 143 124 112
-1.363352099543462 -4.117293922079121 0.8263849208108047 99 68 42
-10.79977615217389 -1.990286712296942 1.179952439617198 246 210 148
-3.096009163356504 1.866763680344137 4.110097607148431 13 20 28
-1.336923871793256 -12.27078067459493 -2.275501933954951 118 97 85
-6.784824898992581 -3.544647250000265 1.061630282112147 121 92 60
-7.859571441435639 -5.550260596622137 1.095267773477679 138 116 84
-2.21827911668839 -9.265760498626653 0.9346604785245183 90 72 47
-9.780766553601357 -1.54390529079804 1.141807035083941 243 197 132
-10.21703806899765 -2.935727635572637 1.184288089489114 248 208 140
-0.5392788969249899 -5.016318645587353 0.8386087318928765 109 80 51
-3.572302643929602 -5.174171213020776 0.9436664772000789 122 96 67
-11.21062386114279 -2.435095074732031 1.130458014398465 251 222 155
-4.651467535840337 -2.246823408613643 0.869291178089977 126 93 62
-5.460741709328662 -2.468621140371216 0.9935929182901011 124 93 64
-5.339751576700559 -5.80477394392001 1.022785427366163 129 105 76
-1.61679053901245 -12.26501138163861 -2.630887933238657 126 107 96
-3.334416324867127 1.912594703349833 3.770931859261223 21 27 35
-10.87688533789889 -4.488703499311195 1.202952094415942 251 224 160
-2.5299977363221 -10.61422584092548 0.9200538082758181 99 82 57
-10.59429781881509 -5.013830400015019 1.211736305410081 252 219 145
-5.234775567828028 -6.151638261299779 0.9889486855536382 111 86 58
-7.857873263246602 -6.581043958710405 1.08756588327626 167 145 113
-8.789485407407104 -4.360732949087486 1.175744866698188 185 148 103
-9.873226564043797 -1.130758286516039 1.174063982289053 251 213 141
-10.9159034776241 -4.403486662918718 1.187209322023326 253 235 166
-0.2049744111371691 -13.11290243202207 -0.1614997705238974 113 98 83
-9.924839079784887 -6.227524898801382 1.205097063453298 249 212 147
-8.551920926813727 -2.52050692779885 1.072306709914011 159 125 88
-10.03247858995774 -5.636175064427296 1.15216209322983 246 210 148
-8.266769376265893 -1.397617802357059 1.100666543644674 156 129 97
-8.944767068163795 -4.721466028666993 1.134547510853722 190 145 95
-8.103102316011123 -0.7882301918123968 1.088100475435501 157 128 93
-10.7260692776481 -4.006614696485776 1.219186239874624 251 219 148
-6.984740660671471 -4.615429173144611 1.039681568917117 147 126 97
-8.594104343539687 -4.325747885026956 1.075069729039002 159 129 92
-10.63765282850846 -4.287540460571455 1.160691558003697 249 217 147
-6.333979958027077 -7.45509549241826 1.083553237086832 129 118 97
-10.45155816503198 6.202537531719724e-002 1.11248504501142 252 225 157
-10.35120324777709 -5.469599548928199 1.132055038661812 250 228 158
-10.51180255535979 -3.962731778170198 1.143881161556265 253 228 157
-5.317786503523489 -8.54935615004927 1.017595989601398 109 90 63
-11.30627345605698 -4.157786024143259 1.211933144302124 200 173 117
-6.515336026420049 -2.168310932365502 1.028188969260455 133 103 71
-4.758293717722691 -9.732705601817106 1.010369730473907 143 123 95
-6.843041678829931 -3.962640149840988 1.041088514014442 123 101 75
-6.389185360075204 -6.136179355910042 1.034452123375568 117 97 69
-5.847689849100147 -1.48164703206036 1.008720398891636 141 110 76
-5.780740211254258 -2.425649329062415 0.9606549645305389 122 93 64
-10.01571940119172 -0.7858334593252403 1.150906672974391 249 215 151
-10.26911359243345 -0.8291809052983381 1.163154331612161 251 222 157
-9.650752141193767 -1.179022696160671 1.145778586737202 240 190 125
-9.860493737368929 -2.19352425897693 1.146733674239026 243 195 132
-9.649532442688765 -3.846240845125052 1.124018253987883 240 187 115
-11.38346026419367 -3.540388037164402 1.255806577141825 252 214 139
-9.788890048041011 -4.946034463034396 1.165637837016103 236 193 131
-8.474911185434973 -2.915297054784635 1.130315519449648 146 115 84
-0.9083862124327936 -12.00020714552432 -1.645869560693555 129 108 95
-7.032007737991043 -7.321699664831309 1.080621955550575 130 113 86
-8.093284866162239 -3.461977940891299 1.066224296302146 140 112 80
-7.603862549183851 -8.169157891268538 1.112632385288267 129 109 80
-10.08991518564296 -3.318189365884907 1.133490895166653 252 218 146
-7.661502820365602 -4.570097866259879 1.06226131045758 129 100 67
-8.735052337347151 -4.577436362189338 1.093599644125973 168 135 96
-2.913314636336491 0.1820429420325413 3.87833598164758 54 80 103
-8.625636859032097 -4.07430917146598 1.11663608612696 161 133 95
-7.489222794340246 -7.259483994560087 1.103905896432963 121 101 73
-8.167223078353729 -7.16788272273366 1.098617748292887 135 114 84
-9.256973528200971 -5.14201890339648 1.195605734322641 220 178 125
-8.595755654594136 -4.87449437521073 1.07620280733198 134 109 77
-11.3508543726243 -2.881754915013084 1.195292067905283 250 219 154
-4.513928208729065 -4.904322359715473 1.00680007409544 124 96 65
-5.772612867970525 -8.242776938233655 1.028589989806254 113 93 65
-10.01647113758997 -4.084826933508728 1.148622370431259 247 202 128
-9.212105385719175 -4.29157678277132 1.098210504023671 216 172 113
-10.28625405451334 -0.1292193454247758 1.172399993560147 252 229 161
-9.58768284280564 -4.394041721918041 1.186870872125276 233 188 130
-4.828052505374623 -4.586467993207323 1.004962180264532 124 96 67
-8.01770844325417 -2.887621592461798 1.072663258469661 128 99 66
-5.687578319712927 -7.575220316308906 1.035016008701882 131 116 94
-0.6907715048108484 -12.60197101464316 -1.329112483658511 131 108 96
-10.53547286782979 -3.588108456044657 1.202330780756035 250 209 137
-6.895609013906921 -6.297057722997813 1.006423275283223 130 109 79
-4.021706571916051 -6.614018433894289 0.974525651535983 131 106 75
-9.731280588990492 -4.637076437619815 1.177319800034349 246 200 135
-10.32141118985656 -3.930114449311052 1.151150246578128 253 231 161
-10.14114055162694 -0.9019323316018368 1.187097424641312 253 223 149
-11.38635191365237 -2.707519948977741 1.195071936765337 249 215 151
-3.546960814413714 -5.621958450997429 0.9439307417883642 117 91 62
-7.535139850780475 -3.19412922741369 1.061380249638405 123 95 65
-8.151332335023998 -3.576924454763745 1.055501429411445 141 114 82
-5.942014090094107 -5.728275216152735 1.025708683547541 120 92 59
-6.540841180060256 -4.065453160086522 1.031624210161866 131 104 70
-10.62642682852945 -4.434584494677085 1.178335141074656 253 228 161
-10.06915625032607 -2.682127382604319 1.16233371102901 249 210 144
-1.300326146887536 -12.55019815577546 -2.199902062226982 108 87 73
-4.921414633935949 -6.761610447694285 0.9886559111526789 110 87 58
-5.837055918673267 -1.084423143372078 0.9706723013270211 131 102 71
-7.131120294521516 -7.953787206222934 1.087550740328253 125 106 80
-11.08771971459536 -3.168831932102805 1.186718972969003 251 225 158
-9.50136947058021 -6.457194792385646 1.18261163071558 231 188 132
-9.928303583499114 -2.616212887293273 1.158473553454902 247 204 137
-10.12898520990388 -1.562540527381884 1.16190858928228 249 212 139
-10.50928170913501 -2.249552165617021 1.128182624809025 252 220 148
-10.55252307829648 -1.70485070272264 1.18080502018099 249 208 135
-5.683658385057863 -6.350502835423559 4.456623193935719 124 98 69
-3.356553980799374 2.007098643908436 3.77285478652357 26 32 38
-9.656098912964792 -1.895547642827218 1.077905795582127 233 177 115
-7.794097413758715 -7.908169295870832 1.131911350450548 125 106 77
-11.0472497856893 -3.747938155998159 1.181323281773605 250 219 151
-10.15173512893659 -3.898767465142173 1.085504678241137 253 224 153
-6.929280764098783 -3.63611000228041 1.053935710185349 100 76 46
-6.574715505425022 -7.435382912672488 1.076547916985009 117 97 67
-9.907596752958691 -4.565668091299558 1.139020410187351 247 207 146
-10.8228925698341 -0.3577124198083678 1.127685499062087 252 224 151
-5.90699143595806 -8.086946618885724 1.047535167636737 144 120 87
-10.1706730331681 -3.957922881910495 1.162437211440922 253 223 152
-11.17399368591335 -1.826581928185567 1.151562658049549 246 192 123
-10.04747659979499 -4.759251110607535 1.175967359941528 248 203 133
-10.14875427568989 -2.442632088707815 1.163825559537722 250 210 142
-10.37524930338888 -4.714294058050761 1.19922615082468 253 232 159
-4.115258058416465 -1.730654155792834 0.9022460603654414 138 106 75
-10.80632829532173 -4.458339901282453 1.199845962777025 253 234 164
-9.778122319680294 -6.345662696239756 1.180623589486356 247 204 136
-0.7746167139184096 -12.02349292852264 -1.546597684813217 135 113 101
-9.907483788990215 -4.447283118555051 1.127659382395927 244 200 135
-10.57720131226315 -0.5601162618893629 1.134176286353014 252 234 165
-9.750547174729791 -3.934091279209412 1.133328234083537 248 203 130
-9.504491717787239 -4.405646777171581 1.16381035993317 230 182 118
-8.669524049667519 -2.910693570590607 1.129086020709231 163 133 97
-6.088929361466457 -3.855984077185544 1.014163457847729 122 95 64
-11.02615658488986 -3.324116786340787 1.202178559291856 251 214 143
-9.570819455189362 -0.6076484840919945 1.18265666109848 242 192 126
-10.05419054917552 -3.407451426831346 1.143182086028561 251 213 140
-10.41639312476027 -4.728208871507243 1.131621228006226 252 222 145
-10.18912855905281 -1.633064136769729 1.180011667347987 250 212 140
-10.3880797313499 -4.640612297491335 1.20350449114059 248 214 142
-9.21935475439588 -2.944959670023445 1.080642919982571 220 183 136
-7.229483303026635 -3.191040967820461 1.06823387965863 131 102 70
-8.920602107580999 -5.787154710257343 1.151598397593867 181 149 106
-10.72109069511228 -0.2380270311460548 1.16901187443971 251 222 147
25.18905408944394 51.2964468574101 -14.40718662977972 97 104 112
-8.74037888169156 -5.147298074518331 1.126131667254559 127 105 76
-10.20949883508804 -4.615442465896551 1.118415680001576 252 219 145
-10.77080677678815 -0.2509610586085899 1.183994106549537 250 222 148
-11.14545364185809 -1.652387541599494 1.187733933347667 252 218 146
-9.673504597277939 -6.009239690069494 1.134437081511615 240 199 139
-10.34923658893155 -3.894543568273232 1.15583034942063 252 233 164
-10.42019528740001 -1.510973763750085 1.132765962447839 252 221 149
-10.22483956849286 -0.316063113002548 1.149529106154267 249 207 135
-10.71464728544748 -1.34827808195329 1.161322623891026 251 225 158
-8.713099870166577 -2.948411784169013 1.125122581517652 167 136 98
-10.31136579358697 -0.5749689759031109 1.119824412758988 253 228 158
-11.40367288923922 -2.53591599103731 1.180653538856472 246 207 144
-10.73697597690608 -0.2863152454575419 1.186967909035386 248 209 136
-6.798664364452763 -7.227687487649306 1.086093671958501 119 99 70
-9.697617222977534 -0.6760605672286475 1.107178441669608 245 203 137
-10.26901108680694 -2.885250337873683 1.115694875536986 249 208 139
-5.722254509735327 -4.486844423495826 0.9989351199347614 136 107 75
-8.20281104954138 -5.215449752284361 9.819750997987704 204 170 118
-10.25923223152503 -4.89427882345077 1.172016174396859 250 215 146
-10.41317964992665 -3.328896220889395 1.170868598198731 253 223 149
-11.60341142096319 -2.606048198552546 1.187297600205682 245 206 143
-9.949217855591746 -1.852770863057164 1.113161722850167 239 185 118
-9.798804557692094 -2.590291111124969 1.158683794718164 242 195 129
-9.889389865296817 -4.823701669451007 1.148602182216863 238 191 128
-10.07313157016203 -4.781634408438447 1.134740037894997 248 210 140
-10.41969909387206 5.078582648794701e-002 1.166814339600187 252 223 152
-9.955464361923029 -3.351020344341837 1.147796324124251 251 213 139
-10.88432095912303 -2.605406759593109 1.132459047180518 250 212 146
-9.941339153291985 -2.587390146606638 1.17207190781375 249 206 139
-10.77875248100988 -0.5724596757589753 1.115841728833027 253 233 162
-10.78618549591936 -1.55364023864144 1.15750546953713 252 223 153
4.646967058519987 -1.12213192373873 2.803842294570612 51 38 27
8.026625204311626 -10.73645827225033 0.4728928877892652 195 149 100
-8.537635169152718 -6.389560925925498 1.193565055519842 147 141 138
17.45746057538864 -10.65063525746044 0.2017760101307976 237 182 108
